6.123233995736766E-17	0.0	-1.0
0.38268343236508984	0.0	-0.9238795325112867
0.1982670137616012	0.3273175837940628	-0.9238795325112867
-0.17724047130979967	0.3391643034527755	-0.9238795325112867
-0.3819224113685056	0.024122211780686773	-0.9238795325112867
-0.21850499131802628	-0.3141690280340116	-0.9238795325112867
0.15550899256494977	-0.34966206920133713	-0.9238795325112867
0.3796423751779725	-0.04814848259243342	-0.9238795325112867
0.7071067811865476	0.0	-0.7071067811865475
0.6008360509170146	0.37282172672531666	-0.7071067811865475
0.3139666116489087	0.6335810656653996	-0.7071067811865475
-0.0672746028246112	0.7038992312929393	-0.7071067811865475
-0.42829448337521947	0.5626400585724002	-0.7071067811865475
-0.6605780295285786	0.2522630906497033	-0.7071067811865475
-0.6943056815347676	-0.13393886884897133	-0.7071067811865475
-0.5193396149397207	-0.47988161493670783	-0.7071067811865475
-0.1882709578846287	-0.6815820173810372	-0.7071067811865475
0.1993879984442741	-0.6784131676761487	-0.7071067811865475
0.5271151063864382	-0.471327555548383	-0.7071067811865475
0.6964024743001129	-0.12257077053147977	-0.7071067811865475
0.9238795325112867	0.0	-0.3826834323650898
0.8416693058085919	0.38098053789262876	-0.3826834323650898
0.6096693673430622	0.6941589537827657	-0.3826834323650898
0.26916814675317874	0.8837996941427017	-0.3826834323650898
-0.11923623347392252	0.9161528863788106	-0.3826834323650898
-0.48642044929620865	0.785460716458658	-0.3826834323650898
-0.767037674504966	0.5149821321980868	-0.3826834323650898
-0.911147186550826	0.15285350841177328	-0.3826834323650898
-0.893102187905757	-0.23647805934425228	-0.3826834323650898
-0.7161141003563819	-0.583724237858977	-0.3826834323650898
-0.4116810365658536	-0.827086521910095	-0.3826834323650898
-0.033982162343777676	-0.9232543545717588	-0.3826834323650898
0.349764429512081	-0.85511299513068	-0.3826834323650898
0.6712643495219528	-0.63478938527211	-0.3826834323650898
0.8733010875699219	-0.3014939486000764	-0.3826834323650898
1.0	0.0	0.0
0.9238795325112867	0.3826834323650898	0.0
0.7071067811865476	0.7071067811865475	0.0
0.38268343236508984	0.9238795325112867	0.0
6.123233995736766E-17	1.0	0.0
-0.3826834323650897	0.9238795325112867	0.0
-0.7071067811865475	0.7071067811865476	0.0
-0.9238795325112867	0.3826834323650899	0.0
-1.0	1.2246467991473532E-16	0.0
-0.9238795325112868	-0.38268343236508967	0.0
-0.7071067811865477	-0.7071067811865475	0.0
-0.38268343236509034	-0.9238795325112865	0.0
-1.8369701987210297E-16	-1.0	0.0
0.38268343236509	-0.9238795325112866	0.0
0.707106781186548	-0.707106781186547	0.0
0.9238795325112872	-0.3826834323650887	0.0
0.9238795325112867	0.0	0.3826834323650898
0.8416693058085919	0.38098053789262876	0.3826834323650898
0.6096693673430622	0.6941589537827657	0.3826834323650898
0.26916814675317874	0.8837996941427017	0.3826834323650898
-0.11923623347392252	0.9161528863788106	0.3826834323650898
-0.48642044929620865	0.785460716458658	0.3826834323650898
-0.767037674504966	0.5149821321980868	0.3826834323650898
-0.911147186550826	0.15285350841177328	0.3826834323650898
-0.893102187905757	-0.23647805934425228	0.3826834323650898
-0.7161141003563819	-0.583724237858977	0.3826834323650898
-0.4116810365658536	-0.827086521910095	0.3826834323650898
-0.033982162343777676	-0.9232543545717588	0.3826834323650898
0.349764429512081	-0.85511299513068	0.3826834323650898
0.6712643495219528	-0.63478938527211	0.3826834323650898
0.8733010875699219	-0.3014939486000764	0.3826834323650898
0.7071067811865476	0.0	0.7071067811865475
0.6008360509170146	0.37282172672531666	0.7071067811865475
0.3139666116489087	0.6335810656653996	0.7071067811865475
-0.0672746028246112	0.7038992312929393	0.7071067811865475
-0.42829448337521947	0.5626400585724002	0.7071067811865475
-0.6605780295285786	0.2522630906497033	0.7071067811865475
-0.6943056815347676	-0.13393886884897133	0.7071067811865475
-0.5193396149397207	-0.47988161493670783	0.7071067811865475
-0.1882709578846287	-0.6815820173810372	0.7071067811865475
0.1993879984442741	-0.6784131676761487	0.7071067811865475
0.5271151063864382	-0.471327555548383	0.7071067811865475
0.6964024743001129	-0.12257077053147977	0.7071067811865475
0.38268343236508984	0.0	0.9238795325112867
0.1982670137616012	0.3273175837940628	0.9238795325112867
-0.17724047130979967	0.3391643034527755	0.9238795325112867
-0.3819224113685056	0.024122211780686773	0.9238795325112867
-0.21850499131802628	-0.3141690280340116	0.9238795325112867
0.15550899256494977	-0.34966206920133713	0.9238795325112867
0.3796423751779725	-0.04814848259243342	0.9238795325112867
6.123233995736766E-17	0.0	1.0
